# .PCD v0.7 - 3D Point Cloud Data
VERSION 0.7
FIELDS x y z
SIZE 4 4 4
TYPE F F F
COUNT 1 1 1
WIDTH 316
HEIGHT 1
VIEWPOINT 0 0 0 1 0 0 0
POINTS 316
DATA ascii
-1.125000 -1.725000 -0.075000
-1.125000 -1.425000 -0.075000
-1.125000 -1.275000 -0.075000
-0.975000 1.125000 -0.075000
-1.125000 1.275000 -0.075000
-1.125000 1.425000 -0.075000
-1.125000 1.575000 -0.075000
-1.125000 1.725000 -0.075000
-1.125000 1.875000 -0.075000
-1.125000 2.025000 -0.075000
-1.575000 -8.025000 0.075000
-1.725000 -7.875000 0.075000
-1.575000 -7.875000 0.075000
-1.425000 -8.025000 0.075000
-1.275000 -8.025000 0.075000
-1.425000 -8.025000 0.225000
-1.275000 -8.025000 0.225000
-1.275000 -8.025000 0.375000
-1.725000 -7.725000 0.075000
-1.725000 -7.575000 0.075000
-1.725000 -7.425000 0.075000
-1.725000 -7.275000 0.075000
-1.575000 -7.275000 0.075000
-1.125000 -8.025000 0.075000
-0.975000 -8.025000 0.075000
-1.125000 -8.025000 0.225000
-0.975000 -8.025000 0.225000
-0.825000 -8.025000 0.075000
-0.825000 -8.025000 0.225000
-0.675000 -8.025000 0.225000
-1.125000 -8.025000 0.375000
-0.975000 -8.025000 0.375000
-0.975000 -8.025000 0.525000
-0.825000 -8.025000 0.375000
-0.675000 -8.025000 0.375000
-0.825000 -8.025000 0.525000
-0.675000 -8.025000 0.525000
-0.525000 -8.025000 0.225000
-0.375000 -8.025000 0.225000
-0.525000 -8.025000 0.375000
-0.375000 -8.025000 0.375000
-0.525000 -8.025000 0.525000
-0.375000 -8.025000 0.525000
-0.225000 -8.025000 0.375000
-0.075000 -8.025000 0.375000
-0.225000 -8.025000 0.525000
-0.075000 -8.025000 0.525000
-0.675000 -8.025000 0.675000
-0.525000 -8.025000 0.675000
-0.375000 -8.025000 0.675000
-0.375000 -8.025000 0.825000
-0.225000 -8.025000 0.675000
-0.075000 -8.025000 0.675000
-0.225000 -8.025000 0.825000
-0.075000 -8.025000 0.825000
-0.075000 -8.025000 0.975000
-1.725000 -6.975000 0.075000
-1.725000 -6.825000 0.075000
-1.725000 -6.675000 0.075000
-1.725000 -6.525000 0.075000
-1.575000 -3.975000 0.075000
-1.425000 -3.825000 0.075000
-1.275000 -3.825000 0.075000
-1.425000 -3.825000 0.225000
-1.275000 -3.825000 0.225000
-1.275000 -3.825000 0.375000
-1.125000 -4.275000 0.375000
-0.975000 -4.275000 0.375000
-1.125000 -3.825000 0.225000
-0.975000 -3.825000 0.225000
-0.825000 -3.825000 0.225000
-0.825000 -3.675000 0.225000
-0.675000 -3.675000 0.225000
-1.125000 -4.125000 0.375000
-0.975000 -4.125000 0.375000
-1.125000 -3.975000 0.375000
-0.975000 -3.975000 0.375000
-0.825000 -4.125000 0.375000
-0.675000 -4.125000 0.375000
-1.125000 -3.825000 0.375000
-0.975000 -3.825000 0.375000
-0.825000 -3.825000 0.375000
-0.675000 -3.825000 0.375000
-0.675000 -3.675000 0.375000
-0.525000 -3.975000 0.375000
-0.525000 -3.825000 0.375000
-0.525000 -3.675000 0.375000
-0.375000 -3.675000 0.375000
-1.725000 -2.475000 0.075000
-1.575000 -2.475000 0.075000
-1.425000 -2.475000 0.075000
-1.425000 -2.475000 0.225000
-1.125000 -2.775000 0.375000
-0.975000 -2.775000 0.375000
-0.825000 -2.775000 0.375000
-1.125000 -2.625000 0.375000
-0.975000 -2.625000 0.375000
-1.125000 -2.475000 0.375000
-0.975000 -2.475000 0.375000
-0.825000 -2.625000 0.375000
-0.675000 -2.625000 0.375000
-0.825000 -2.475000 0.375000
-0.675000 -2.475000 0.375000
-0.525000 -2.625000 0.375000
-0.375000 -2.625000 0.375000
-0.525000 -2.475000 0.375000
-0.375000 -2.475000 0.375000
-0.225000 -2.475000 0.375000
-1.725000 -2.325000 0.075000
-1.575000 -2.325000 0.075000
-1.725000 -2.175000 0.075000
-1.575000 -2.175000 0.075000
-1.275000 -2.325000 0.075000
-1.425000 -2.325000 0.225000
-1.275000 -2.325000 0.225000
-1.725000 -2.025000 0.075000
-1.575000 -2.025000 0.075000
-1.575000 -1.875000 0.075000
-1.275000 -2.325000 0.375000
-1.725000 -1.425000 0.075000
-1.725000 -1.275000 0.075000
-1.575000 -1.275000 0.075000
-1.125000 -2.325000 0.075000
-1.125000 -2.325000 0.225000
-1.125000 -2.325000 0.375000
-0.825000 -2.325000 0.375000
-0.675000 -2.325000 0.375000
-0.525000 -2.325000 0.375000
-0.375000 -2.325000 0.375000
-0.525000 -2.175000 0.375000
-0.375000 -2.175000 0.375000
-0.225000 -2.175000 0.375000
-1.725000 -1.125000 0.075000
-1.575000 -1.125000 0.075000
-1.725000 -0.975000 0.075000
-1.575000 -0.975000 0.075000
-1.725000 -0.825000 0.075000
-1.575000 -0.825000 0.075000
-1.725000 -0.675000 0.075000
-1.575000 -0.675000 0.075000
-1.725000 -0.525000 0.075000
-1.575000 -0.525000 0.075000
-1.725000 -0.375000 0.075000
-1.575000 -0.375000 0.075000
-1.725000 -0.225000 0.075000
-1.575000 -0.225000 0.075000
-1.725000 -0.075000 0.075000
-1.575000 -0.075000 0.075000
-0.075000 -0.225000 0.375000
-0.075000 -0.225000 0.525000
-0.075000 -0.075000 0.525000
-0.075000 -0.225000 0.975000
0.075000 -8.025000 0.525000
0.225000 -8.025000 0.525000
0.075000 -8.025000 0.675000
0.225000 -8.025000 0.675000
0.075000 -8.025000 0.825000
0.225000 -8.025000 0.825000
0.375000 -8.025000 0.675000
0.525000 -8.025000 0.675000
0.375000 -8.025000 0.825000
0.525000 -8.025000 0.825000
0.075000 -8.025000 0.975000
0.225000 -8.025000 0.975000
0.375000 -8.025000 0.975000
0.525000 -8.025000 0.975000
0.675000 -8.025000 0.825000
0.675000 -8.025000 0.975000
0.825000 -8.025000 0.975000
0.975000 -8.025000 0.975000
0.075000 -0.075000 0.975000
0.075000 -0.075000 1.125000
-1.725000 0.075000 0.075000
-1.575000 0.075000 0.075000
-1.725000 0.225000 0.075000
-1.575000 0.225000 0.075000
-1.725000 0.375000 0.075000
-1.575000 0.375000 0.075000
-1.725000 0.525000 0.075000
-1.575000 0.525000 0.075000
-1.725000 0.675000 0.075000
-1.575000 0.675000 0.075000
-1.725000 0.825000 0.075000
-1.575000 0.825000 0.075000
-1.725000 0.975000 0.075000
-1.575000 0.975000 0.075000
-1.725000 1.125000 0.075000
-1.575000 1.125000 0.075000
-0.075000 0.225000 0.375000
-0.075000 0.075000 0.525000
-0.075000 0.225000 0.525000
-0.075000 0.225000 0.975000
-1.725000 1.275000 0.075000
-1.575000 1.275000 0.075000
-1.725000 1.425000 0.075000
-1.575000 1.875000 0.075000
-1.725000 2.025000 0.075000
-1.575000 2.025000 0.075000
-1.725000 2.175000 0.075000
-1.575000 2.175000 0.075000
-1.725000 2.325000 0.075000
-1.575000 2.325000 0.075000
-1.725000 2.475000 0.075000
-1.575000 2.475000 0.075000
-1.725000 2.625000 0.075000
-1.575000 2.625000 0.075000
-1.725000 2.775000 0.075000
-1.575000 2.775000 0.075000
-1.725000 2.925000 0.075000
-1.575000 2.925000 0.075000
-1.725000 3.075000 0.075000
-1.575000 3.075000 0.075000
-1.725000 3.225000 0.075000
-1.575000 3.225000 0.075000
-1.725000 3.375000 0.075000
-1.575000 3.375000 0.075000
-1.725000 3.525000 0.075000
-1.575000 3.525000 0.075000
-0.975000 3.225000 0.075000
-0.975000 3.375000 0.075000
-1.125000 3.375000 0.225000
-0.975000 3.375000 0.225000
-0.825000 3.375000 0.075000
-0.825000 3.375000 0.225000
-0.825000 3.525000 0.225000
-1.125000 3.375000 0.375000
-0.975000 3.375000 0.375000
-0.975000 3.375000 0.525000
-0.825000 3.375000 0.375000
-0.825000 3.525000 0.375000
-0.825000 3.375000 0.525000
-0.825000 3.525000 0.525000
-1.725000 3.675000 0.075000
-1.575000 3.675000 0.075000
-1.725000 3.825000 0.075000
-1.575000 3.825000 0.075000
-1.725000 3.975000 0.075000
-1.575000 3.975000 0.075000
-1.725000 4.125000 0.075000
-1.575000 4.125000 0.075000
-1.725000 4.275000 0.075000
-1.575000 4.275000 0.075000
-1.725000 4.425000 0.075000
-1.575000 4.425000 0.075000
-1.725000 4.575000 0.075000
-1.725000 4.725000 0.075000
-0.825000 3.675000 0.225000
-1.725000 4.875000 0.075000
-1.725000 5.025000 0.075000
-1.725000 7.875000 0.075000
-1.575000 7.875000 0.075000
-1.725000 8.025000 0.075000
-1.575000 8.025000 0.075000
-1.275000 7.875000 0.075000
-1.425000 8.025000 0.075000
-1.275000 8.025000 0.075000
-1.425000 8.025000 0.225000
-1.275000 8.025000 0.225000
-1.125000 7.875000 0.075000
-0.975000 7.875000 0.075000
-1.125000 8.025000 0.075000
-0.975000 8.025000 0.075000
-1.125000 8.025000 0.225000
-0.975000 8.025000 0.225000
-0.825000 8.025000 0.075000
-0.675000 8.025000 0.075000
-0.825000 8.025000 0.225000
-0.675000 8.025000 0.225000
-1.125000 8.025000 0.375000
-0.975000 8.025000 0.375000
-0.975000 8.025000 0.525000
-0.825000 8.025000 0.375000
-0.675000 8.025000 0.375000
-0.825000 8.025000 0.525000
-0.675000 8.025000 0.525000
-0.525000 8.025000 0.225000
-0.375000 8.025000 0.225000
-0.525000 8.025000 0.375000
-0.375000 8.025000 0.375000
-0.525000 8.025000 0.525000
-0.375000 8.025000 0.525000
-0.225000 8.025000 0.375000
-0.075000 8.025000 0.375000
-0.225000 8.025000 0.525000
-0.075000 8.025000 0.525000
-0.675000 8.025000 0.675000
-0.525000 8.025000 0.675000
-0.375000 8.025000 0.675000
-0.375000 8.025000 0.825000
-0.225000 8.025000 0.675000
-0.075000 8.025000 0.675000
-0.225000 8.025000 0.825000
-0.075000 8.025000 0.825000
-0.225000 8.025000 0.975000
-0.075000 8.025000 0.975000
0.075000 0.075000 0.975000
0.075000 0.075000 1.125000
0.225000 0.075000 1.125000
0.075000 8.025000 0.525000
0.225000 8.025000 0.525000
0.075000 8.025000 0.675000
0.225000 8.025000 0.675000
0.075000 8.025000 0.825000
0.225000 8.025000 0.825000
0.375000 8.025000 0.675000
0.525000 8.025000 0.675000
0.375000 8.025000 0.825000
0.525000 8.025000 0.825000
0.075000 8.025000 0.975000
0.225000 8.025000 0.975000
0.375000 8.025000 0.975000
0.525000 8.025000 0.975000
0.675000 8.025000 0.825000
0.675000 8.025000 0.975000
0.825000 8.025000 0.975000
0.975000 8.025000 0.975000
